ply
format ascii 1.0
element vertex 70
property double x
property double y
property double z
property uchar red
property uchar green
property uchar blue
end_header
1.5640693802802326 -0.0165003788712795 0.9210023114259285 0 255 0
1.5919358384018836 -0.0077519099210946 2.7219411256900909 0 255 0
0.0059823419311784 -0.0196687087509474 3.6136220003071222 0 255 0
-1.5944774014297831 -0.0095773858125428 2.7185266030613562 0 255 0
-1.5758264298411553 -0.0091227583671051 0.8997082986285612 0 255 0
0.0000000000000000 0.0000000000000000 0.0000000000000000 0 255 0
-0.6219853792022275 -0.5126560934164470 1.4863774104087120 255 255 255
0.4271426764858439 -0.0791163767704157 2.2593920663144051 255 255 255
0.7249793240918967 0.1099561269257705 1.8874915949680811 255 255 255
0.1214922000165875 0.3197434020537487 1.8548802265352464 255 255 255
0.2240874293861934 0.5654699280001488 1.2233232836433561 255 255 255
-0.6831108069642501 0.5372123069423209 1.1938787727250104 255 255 255
0.6098036256092666 0.5910801107880342 2.5211194568021558 255 255 255
0.6378949446351723 -0.6241097690131262 1.5042693887416905 255 255 255
0.0984160088989752 -0.3039595074379760 1.1908025960326751 255 255 255
0.3741508533636350 -0.5996399134589330 2.4965767791831386 255 255 255
-0.2884779996859425 0.0359451618512577 2.2023451467561190 255 255 255
-0.5389017280318871 0.3492739469534152 1.4886043185978424 255 255 255
-0.5188835370690321 0.6832024649447361 2.2335127554315379 255 255 255
-0.4825393670926700 0.0810813253446805 1.6829353947465944 255 255 255
0.7010515239761558 0.6921446402879068 2.4274930939780295 255 255 255
-0.6742509655748995 0.5921268706750612 1.9806096294859226 255 255 255
-0.4917095914447170 -0.3074737961291456 1.2516767677441398 255 255 255
-0.4018938973439603 0.4028130543385378 2.5070901263129488 255 255 255
0.4382723075338427 0.5688880059207611 1.6191203845845672 255 255 255
-0.0883772499729959 0.4278337234856100 2.2564858392306926 255 255 255
-0.4163535899866867 0.0024385077237890 1.7456739448440022 255 255 255
-0.3924026753482952 0.0136953356714018 1.3289675863411348 255 255 255
0.1287114293956502 0.1586348984536991 2.5170035965908992 255 255 255
-0.1107807465781060 0.0039118887988155 2.4998082685447316 255 255 255
0.6294222745682503 0.2723879544536881 1.3633972292280485 255 255 255
-0.1684638566849345 -0.0236616848299054 2.4503473942372711 255 255 255
-0.0105247343452568 0.5225452765439034 2.3524938951685375 255 255 255
-0.5527223916744280 -0.1785361682693842 2.4495573828285071 255 255 255
0.5890452751523804 -0.0964276021368322 1.6953364753674056 255 255 255
0.3045488708692158 0.2038434458348320 1.6094468430053113 255 255 255
-0.7220581338455030 0.2992161832903362 1.4039232521383398 255 255 255
-0.5743884232066589 0.4518573867376183 2.5075433554411752 255 255 255
0.5759072513123388 0.6979571345880796 2.0167564702985525 255 255 255
-0.4598372019688135 -0.4238889674330477 1.3256336260052868 255 255 255
0.4349309562892271 0.3534520012491830 1.7952943501935072 255 255 255
-0.1815506015703680 0.6213156128403275 1.8765289348415606 255 255 255
0.0298091088118295 -0.6436607546554924 2.3802968980274430 255 255 255
-0.6494903395937345 -0.0392536020326305 1.6230706697237787 255 255 255
-0.4286587234934732 0.6312996170780392 1.3909117981530719 255 255 255
-0.6363717210441070 0.5162296510662052 1.3624350781639805 255 255 255
-0.5750319750188360 0.3687248155840914 2.0956353124706046 255 255 255
-0.4731261271017685 0.2217248795048914 2.3911834304227599 255 255 255
-0.3977066506693929 0.0222308990711706 1.3853263333072767 255 255 255
0.0562435134985647 -0.2662244748752888 2.1153369649740306 255 255 255
-0.4615167324679109 -0.6516173837658020 1.6483433977074382 255 255 255
-0.5378271319710504 -0.2402185837693826 1.6935222017717115 255 255 255
-0.1206062719933166 -0.0366442352987952 2.3258894047168952 255 255 255
-0.0560434277422801 0.4833872183411565 1.7548250136721144 255 255 255
0.6160374133546348 0.6867925645510691 2.3130880560567788 255 255 255
0.5850449788676486 -0.0002038500678281 1.2963810225852481 255 255 255
0.5815733660884765 -0.4466756531612279 2.4790261168079364 255 255 255
0.5267782202905533 -0.2944953462632182 2.4408391247472703 255 255 255
0.4404524675462522 -0.0118938682981566 2.4576541892008197 255 255 255
0.3424358389807772 0.2469231071576932 2.0842427182956533 255 255 255
-0.3156572244486946 -0.6885439007910346 1.5994921853393809 255 255 255
-0.5232040366888134 -0.1022384157189782 1.1597795920900855 255 255 255
-0.2042420265318637 0.1458212579286093 2.1222387888318579 255 255 255
-0.5169387980200117 -0.1821361541543670 2.4675306074621446 255 255 255
0.0416029841845732 -0.3102735139639379 1.8696022171009967 255 255 255
0.2841465423072058 0.4506215455711952 1.1204379360150440 255 255 255
-0.5754401334382729 0.6816517574345721 2.5275143228591626 255 255 255
-0.4475718577937743 -0.7184368885765080 1.1435296986537362 255 255 255
-0.4689352800305332 0.3474317481657198 1.1679097731989891 255 255 255
-0.2106599267463071 0.2286544401849842 1.1839095452871951 255 255 255
