ply
format ascii 1.0
element vertex 70
property double x
property double y
property double z
property uchar red
property uchar green
property uchar blue
end_header
1.5783515033647610 -0.0114190441638048 0.9045150860335958 0 255 0
1.5732392490505958 -0.0093727911737855 2.7219546854454673 0 255 0
-0.0027733036076306 -0.0086137849004869 3.6268264045706400 0 255 0
-1.5751942978731175 -0.0094895830151717 2.7146684091067192 0 255 0
-1.5702616558085221 -0.0122752911404043 0.8968135202292574 0 255 0
0.0059956492724719 -0.0126060049136554 -0.0081064127516906 0 255 0
-0.6173723095727440 -0.5143461600516052 1.4842586670642874 255 255 255
0.4257462404678830 -0.0772411480915958 2.2610657232348750 255 255 255
0.7222715076094888 0.1111717074615965 1.8921673300296580 255 255 255
0.1205108990451949 0.3202634543097177 1.8565316222042150 255 255 255
0.2273562604986793 0.5651232537118581 1.2200018188794852 255 255 255
-0.6775453803733210 0.5346012801579949 1.1931791906146669 255 255 255
0.6067131325367678 0.5922406507696674 2.5239229276086923 255 255 255
0.6346975252519875 -0.6275906823902891 1.4995006576800807 255 255 255
0.0996417501956384 -0.3071357989904892 1.1846934620945686 255 255 255
0.3728141691323862 -0.5971627994932528 2.4951567721465651 255 255 255
-0.2913011223045158 0.0372234480188554 2.2041690037141484 255 255 255
-0.5348620041990082 0.3474312300534633 1.4899275455703684 255 255 255
-0.5176609820906667 0.6816799480308482 2.2385646319386172 255 255 255
-0.4802155324065627 0.0799746347010742 1.6847630040456871 255 255 255
0.6972749423824468 0.6924123466693535 2.4306402250735135 255 255 255
-0.6704836159711143 0.5902296339859724 1.9858533655029116 255 255 255
-0.4876059111831462 -0.3105537480698122 1.2487237855769562 255 255 255
-0.4059875906210885 0.4039333374173373 2.5098369887984013 255 255 255
0.4378937648065573 0.5705635279319975 1.6188761234150191 255 255 255
-0.0907024869796542 0.4291266524591732 2.2590444802810143 255 255 255
-0.4149999812382589 0.0017138845864261 1.7472705678481109 255 255 255
-0.3893367733249907 0.0111455186881867 1.3277860709705647 255 255 255
0.1254260195317993 0.1618385065929186 2.5169971522201231 255 255 255
-0.1158614352859067 0.0068598622688941 2.4992242751278795 255 255 255
0.6276231512020194 0.2738318966805274 1.3593997570136680 255 255 255
-0.1734984562960733 -0.0209925744384685 2.4501455107344867 255 255 255
-0.0131603741435188 0.5243638180158484 2.3551054539572243 255 255 255
-0.5583318408912307 -0.1753359052475582 2.4509710325143637 255 255 255
0.5859142513645657 -0.0964461575191133 1.6962627305708060 255 255 255
0.3034288876226673 0.2039906140763477 1.6091852380821590 255 255 255
-0.7163839772648863 0.2970124864802769 1.4047376509187237 255 255 255
-0.5771043641284629 0.4512339904309242 2.5113921901818066 255 255 255
0.5739747706693556 0.6996784311073958 2.0192292454121885 255 255 255
-0.4560363135811771 -0.4265430799251754 1.3224793523748082 255 255 255
0.4332998824608743 0.3546511795970948 1.7969937321268059 255 255 255
-0.1806459895000603 0.6211174990997886 1.8793385140344405 255 255 255
0.0268825665972274 -0.6416190240856890 2.3783964395923585 255 255 255
-0.6454235559460335 -0.0406400337658841 1.6247066558494903 255 255 255
-0.4243368709765751 0.6296660257403773 1.3916271204512820 255 255 255
-0.6310514372683668 0.5141298603663823 1.3630474045413719 255 255 255
-0.5741934448353900 0.3678280486094145 2.1005123859085519 255 255 255
-0.4769795106059036 0.2226421753558667 2.3940899281661769 255 255 255
-0.3948060089431522 0.0199464258008579 1.3845861914801771 255 255 255
0.0539012656924789 -0.2649701428608716 2.1152320624594507 255 255 255
-0.4586917788706097 -0.6522276331196823 1.6460586621958320 255 255 255
-0.5352087152880817 -0.2409728881872794 1.6941908901360487 255 255 255
-0.1244386096020185 -0.0345331516785036 2.3262619499155748 255 255 255
-0.0555213794475483 0.4833163421384790 1.7565897670671171 255 255 255
0.6131042884713938 0.6877157278923283 2.3162677822224533 255 255 255
0.5823908264910189 -0.0009021904553312 1.2907262832949991 255 255 255
0.5816652812630789 -0.4433643954073673 2.4792363681637122 255 255 255
0.5266806523994223 -0.2916871659612599 2.4413494436684973 255 255 255
0.4397660081585489 -0.0093193889877850 2.4583145722489022 255 255 255
0.3406055370006729 0.2482544580099399 2.0866921379632837 255 255 255
-0.3135912931905792 -0.6895617623782463 1.5962448810012226 255 255 255
-0.5189058339851768 -0.1057593636887132 1.1572823530234473 255 255 255
-0.2063353967351140 0.1466974093806182 2.1242915288874031 255 255 255
-0.5229469940267888 -0.1788838644036807 2.4684807484625089 255 255 255
0.0400862875483915 -0.3101613678659001 1.8689789277224442 255 255 255
0.2875317386365411 0.4496678749804023 1.1154124209327818 255 255 255
-0.5752920993460834 0.6799408844689769 2.5325196006695543 255 255 255
-0.4422496018380438 -0.7219662593549417 1.1376822532116984 255 255 255
-0.4647404417889563 0.3445323005631007 1.1668729831111020 255 255 255
-0.2074363165811803 0.2259436487114184 1.1819959616743902 255 255 255
