ply
format ascii 1.0
element vertex 70
property double x
property double y
property double z
property uchar red
property uchar green
property uchar blue
end_header
1.5784935644359033 -0.0114268427014101 0.9046788331919353 0 255 0
1.5740833416703184 -0.0092324022411820 2.7205702414627169 0 255 0
-0.0026766857921414 -0.0086083175742099 3.6268696187237670 0 255 0
-1.5751757034811340 -0.0093039778993564 2.7146904446538378 0 255 0
-1.5705923156968233 -0.0121533067908199 0.8968694401973505 0 255 0
0.0071387727807467 -0.0124076289621718 -0.0084238974304361 0 255 0
-0.6174475452376448 -0.5144596909892911 1.4842732021495848 255 255 255
0.4258290952380338 -0.0772444824815627 2.2607266902737058 255 255 255
0.7224553505820511 0.1111777918541775 1.8918494222789204 255 255 255
0.1204808936001192 0.3202652149082182 1.8564228189104506 255 255 255
0.2274523796149502 0.5651480924114062 1.2199282777964842 255 255 255
-0.6776793917782382 0.5347142937623357 1.1931964512440387 255 255 255
0.6068429278595769 0.5923910650237112 2.5234990582155170 255 255 255
0.6348520485153500 -0.6274987299235222 1.4993504383153531 255 255 255
0.0998589450105989 -0.3071422621036471 1.1846292000263279 255 255 255
0.3729238657436004 -0.5972819539934863 2.4948706340117428 255 255 255
-0.2914275547742624 0.0372054204900495 2.2041433917308937 255 255 255
-0.5349979033782054 0.3474572108873467 1.4899633542019672 255 255 255
-0.5178409301873745 0.6816643713717242 2.2385502297160964 255 255 255
-0.4803461127265326 0.0799593348505575 1.6847974775536989 255 255 255
0.6974410860972635 0.6925347890277100 2.4301775424372929 255 255 255
-0.6706814322266168 0.5902061245657619 1.9858719456510481 255 255 255
-0.4876050634378347 -0.3106309122089176 1.2487403370449204 255 255 255
-0.4061420832062180 0.4039421237564281 2.5098093259846181 255 255 255
0.4379268365848467 0.5705456669742502 1.6187611618235669 255 255 255
-0.0908199040422824 0.4291422528067677 2.2589590246911948 255 255 255
-0.4151156956115349 0.0016901052399839 1.7472927945581709 255 255 255
-0.3893513833645050 0.0111433596561222 1.3278160872315417 255 255 255
0.1253705270663313 0.1618608700676414 2.5168343012696814 255 255 255
-0.1159502841733186 0.0068506602903291 2.4991563438052222 255 255 255
0.6277149323865623 0.2738309009401514 1.3593318990185581 255 255 255
-0.1735950716459949 -0.0210068584636890 2.4500923399444807 255 255 255
-0.0132622668069449 0.5243995516328119 2.3549955834427769 255 255 255
-0.5584422745818369 -0.1753489921645309 2.4509959945012549 255 255 255
0.5860560320141379 -0.0964225693638546 1.6960742234843307 255 255 255
0.3034861638546907 0.2039924473660560 1.6090796202271198 255 255 255
-0.7165575912221245 0.2970441864832907 1.4047832112928165 255 255 255
-0.5772805986346776 0.4512310334477082 2.5113753349346077 255 255 255
0.5740467827567529 0.6996670939080918 2.0189616369192747 255 255 255
-0.4560349161249915 -0.4266439092175242 1.3224858320010824 255 255 255
0.4333574010441860 0.3546450122536248 1.7968196440877440 255 255 255
-0.1807704215927176 0.6211255377824414 1.8792951453664395 255 255 255
0.0269037947641304 -0.6417185656596792 2.3782868091325304 255 255 255
-0.6455730537292900 -0.0406657887747330 1.6247604875889252 255 255 255
-0.4244328516065761 0.6297334227357261 1.3916301753533931 255 255 255
-0.6312008846287509 0.5141939386823853 1.3630734554564026 255 255 255
-0.5743834689763673 0.3678110547614628 2.1005311700787490 255 255 255
-0.4771442845249638 0.2226368919761085 2.3940850350991041 255 255 255
-0.3948420046101444 0.0199415400733123 1.3846176393412617 255 255 255
0.0538839897975872 -0.2650082958690309 2.1151036883513945 255 255 255
-0.4587353117917741 -0.6523497801376091 1.6460505581177534 255 255 255
-0.5353184528951953 -0.2410247544719819 1.6942259143648188 255 255 255
-0.1245295183744801 -0.0345518939472721 2.3261903282775362 255 255 255
-0.0555956774990370 0.4833248717523446 1.7565351599419645 255 255 255
0.6132176888684930 0.6877898531077666 2.3158800504907622 255 255 255
0.5825286071515312 -0.0008728878327672 1.2906530840522026 255 255 255
0.5818509805130491 -0.4434463136693099 2.4787847893203918 255 255 255
0.5268241004474818 -0.2917318270812811 2.4409267375951895 255 255 255
0.4398403704769513 -0.0093110395418881 2.4579519178925184 255 255 255
0.3406343490730096 0.2482655254787272 2.0864533109092789 255 255 255
-0.3135941756720047 -0.6896827195442113 1.5962150152485013 255 255 255
-0.5189103090224995 -0.1057802139929089 1.1573091265302058 255 255 255
-0.2064549793848137 0.1466861931230648 2.1242461639374843 255 255 255
-0.5230518133589888 -0.1788988457636240 2.4685017958265720 255 255 255
0.0400927586911664 -0.3101976461323555 1.8688815527907194 255 255 255
0.2876891898856613 0.4496942797510365 1.1153315298056090 255 255 255
-0.5754520243871851 0.6799361331026218 2.5324902723231042 255 255 255
-0.4421635835414179 -0.7221726276772422 1.1376189843413667 255 255 255
-0.4647610396787989 0.3446199622525026 1.1668955719174696 255 255 255
-0.2073392136488013 0.2259950342345632 1.1819910680431280 255 255 255
